# .PCD v0.7 - Point Cloud Data file format
VERSION 0.7
FIELDS x y z intensity
SIZE 4 4 4 4
TYPE F F F F
COUNT 1 1 1 1
WIDTH 1288
HEIGHT 1
VIEWPOINT 0 0 0 1 0 0 0
POINTS 1288
DATA ascii
-2.250761 -0.46741778 3.6624217 15.263158
-1.967348 -0.4569172 3.6716673 14.179487
-1.6480416 -0.45946315 3.6790977 15.545455
-1.3612688 -0.47669858 3.6827934 14.081081
-1.0541394 -0.45045555 3.6833508 13.189189
-0.75353914 -0.44446331 3.6977108 16.171429
-0.46140391 -0.45700282 3.7054596 18.190475
-0.13358082 -0.46908131 3.717279 18.266666
0.16537765 -0.46769226 3.7330365 18.67647
0.45099628 -0.44012383 3.7407341 15.971429
0.74749708 -0.44074309 3.7362158 14.041667
1.0758712 -0.45636272 3.7546816 13.484848
1.3356235 -0.44124854 3.7556329 15.051282
1.6517558 -0.44450325 3.7596722 14.558824
1.9030136 -0.46212283 3.776284 15.347826
2.2308545 -0.4623341 3.7941589 15.12
2.5286756 -0.4875384 3.8039541 13.388889
2.8596299 -0.46773228 3.8095448 13.928572
3.1439137 -0.44929951 3.8238103 14.411765
3.4823623 -0.47280023 3.8308518 14.642858
3.7732091 -0.44364899 3.8321533 14.2
4.0365295 -0.47001407 3.838721 10.375
4.3629684 -0.3877672 3.8539343 16.777779
4.6953378 -0.42028674 3.8596246 18.25
4.9657869 -0.47086385 3.8731363 19.272728
5.2062874 -0.41523209 3.8742931 18.333334
5.4963484 -0.42018944 3.8830373 18.571428
5.7671137 -0.46883878 3.8837247 12.8
6.1321406 -0.47316355 3.8920968 19.5
6.3024287 -0.31160688 3.8962047 23
-19.052629 -0.19990239 3.6833019 14.571428
-18.849926 -0.030584551 3.6091886 8
-9.6285372 -0.028657913 3.6162775 12
-9.4479036 -0.19371745 3.713716 23.4
-9.1979866 -0.26725584 3.6986995 23
-7.2245512 -0.21924989 3.6050279 12
-7.0315161 -0.13585758 3.6082704 1
-6.3590693 -0.062647305 3.6000166 0
-5.9134293 -0.2305467 3.6126604 0
-5.5599308 -0.13565651 3.6044371 0
-5.2449808 -0.17466998 3.6095335 19
-4.970511 -0.16221124 3.6119764 13
-4.6378517 -0.1610111 3.6121893 11
-4.3376236 -0.21943194 3.6094813 12.875
-4.0230398 -0.16782899 3.6130083 14.277778
-3.7461267 -0.16180089 3.6187661 12.244898
-3.464329 -0.12750199 3.631283 13
-3.1632414 -0.1534891 3.632009 13.08
-2.854244 -0.1435172 3.6337874 12.8
-2.5403817 -0.1737735 3.6455231 15.068182
-2.2498775 -0.1605307 3.6487863 15.708333
-1.9506087 -0.14833805 3.6621041 14.926829
-1.6404343 -0.16413155 3.6711261 15.925
-1.343052 -0.16003168 3.6733286 17.585365
-1.0588549 -0.18077798 3.6796684 15.694445
-0.75378323 -0.15404309 3.6852679 14.641026
-0.46371713 -0.14837332 3.6930006 15.888889
-0.15758413 -0.14315897 3.700058 18
0.16891068 -0.16405769 3.7209253 18.086956
0.48261395 -0.1673626 3.7346547 17.675676
0.77206862 -0.15400386 3.7447264 16.295454
1.0300963 -0.14125986 3.731519 13.833333
1.346977 -0.16684486 3.749645 15.517241
1.6273278 -0.12520139 3.7551641 16.162163
1.9166633 -0.14696017 3.7627723 13.344828
2.2205005 -0.17301504 3.7798574 10.380953
2.5651977 -0.19281884 3.7992797 14.363636
2.8853748 -0.14357144 3.7978292 8.375
3.1450307 -0.18093514 3.810765 12.333333
3.4576061 -0.17074984 3.823797 14.692307
3.7757609 -0.12594657 3.8244894 13.705882
4.0185218 -0.14181955 3.8255739 17.727272
4.3478351 -0.17644177 3.8394377 14.818182
4.6311965 -0.19086504 3.8567345 12.25
4.9653754 -0.11492405 3.8554757 17.200001
5.2983317 -0.15521696 3.8603494 18.666666
5.5707617 -0.20619053 3.8580706 25.454546
5.8088164 -0.077804312 3.8505254 18.888889
6.1358557 -0.11095172 3.8826587 18
6.4500155 -0.10600436 3.8879869 16.857143
6.7075105 -0.10570079 3.8963318 12.333333
6.9189816 -0.045305386 3.8768797 17
-18.789305 0.13685514 3.7568588 18.636364
-14.636265 0.25056803 3.807524 0
-10.830303 0.19654755 3.6000428 1
-6.9848061 0.080735914 3.654639 3.6666667
-6.8251896 0.17074075 3.6420393 18.5
-6.0261703 0.00053228682 3.6019771 10
-4.9194589 0.17298712 3.6127355 19.666666
-4.6903715 0.17573194 3.6086307 17
-4.3458629 0.15025607 3.6135805 16.416666
-4.0114751 0.14213654 3.6192272 9.8000002
-3.7409048 0.13704404 3.624686 12.857142
-3.448261 0.1322016 3.6175501 13.333333
-3.1265352 0.14688756 3.621989 13.018867
-2.8473947 0.16938518 3.635237 14.023255
-2.5519567 0.14506422 3.635602 14.227273
-2.2492988 0.15664706 3.6460185 15.641026
-1.9422066 0.16202439 3.6519082 16.049999
-1.6533561 0.13039847 3.6592014 17.026316
-1.3361244 0.1596806 3.6655276 16.953489
-1.0388721 0.16183668 3.6734679 15.463414
-0.74599832 0.15289184 3.6765587 14.75862
-0.44973174 0.15351202 3.690583 15.473684
-0.14461474 0.14311941 3.6961339 15.685715
0.1335171 0.15192819 3.7049782 15.892858
0.46450943 0.12569124 3.7167933 17.641026
0.75783271 0.13777275 3.7319098 18.128204
1.0278523 0.14999793 3.7401221 17.40909
1.3583267 0.17949559 3.7486303 19.172413
1.650631 0.082541674 3.7424386 16.450001
1.9422128 0.10909003 3.7529449 10
2.1852 0.082481399 3.7553062 9.8888893
2.5214174 0.086834699 3.7827079 9.5
2.8830595 0.11453159 3.7794898 10.272727
3.174691 0.13925645 3.7933815 16.363636
3.4343238 0.13121662 3.8108072 14.769231
3.7547395 0.13663611 3.8083193 15.875
4.0391865 0.12245114 3.8156698 15
4.3721604 0.10966768 3.8308036 13.272727
4.6651959 0.079566456 3.8386452 18
4.9671283 0.17137446 3.8411927 17.454546
5.2848377 0.10669367 3.8542717 16.799999
5.5803742 0.17551655 3.8546858 16.833334
5.8172202 0.13746274 3.8608005 22.333334
6.1021452 0.16400547 3.8383417 25.5
6.417213 0.12270901 3.8675287 15.75
6.6201992 0.14446588 3.8949265 10
7.2243829 0.16982444 3.8827932 3
8.0540714 0.10872644 3.8870687 4
-18.600666 0.35431644 3.7768774 12
-18.520899 0.43076375 3.7757163 19.25
-6.6986437 0.41795045 3.6521118 12
-6.5278416 0.54488951 3.6022849 11
-5.1922846 0.30862802 3.6093674 0
-4.8443465 0.42121375 3.6059399 10
-4.64499 0.54041064 3.6127656 15.5
-4.3197799 0.47374299 3.607127 15.875
-4.0788765 0.42058414 3.6368954 10.736842
-3.8090832 0.42487264 3.6112599 12.5
-3.433603 0.41026467 3.614527 13.545455
-3.1338403 0.44428667 3.6152844 13.777778
-2.8436198 0.44282016 3.6214626 15.203704
-2.5560677 0.45267341 3.6224442 14.8125
-2.2489703 0.43977943 3.6311188 13.157895
-1.9456357 0.45316675 3.6364453 15.722222
-1.6693159 0.44341564 3.6486158 17
-1.3547151 0.45322645 3.6550212 15.5
-1.0505043 0.4551506 3.6660242 17.743589
-0.74673009 0.43523967 3.6678565 15.777778
-0.42750898 0.44416264 3.6827052 15.633333
-0.15916111 0.45891717 3.6939864 14.852942
0.15148205 0.43528134 3.6991062 14.580646
0.4340018 0.46862695 3.7004788 15.25
0.75106514 0.46082094 3.7086306 16.236841
1.0314794 0.47840932 3.7298734 18.757576
1.3321965 0.44055685 3.7191434 19.837837
2.1685231 0.31715009 3.7532568 10
2.5378468 0.47037154 3.7582266 9.25
2.852834 0.45726791 3.7640686 13.214286
3.1858253 0.48927274 3.7909789 9.8571424
3.4375591 0.46083835 3.7957571 18.333334
3.7963321 0.43075997 3.8109937 11.428572
4.0792217 0.45666021 3.8066721 15.555555
4.3240228 0.42759618 3.8103454 15.090909
4.6233225 0.47038025 3.8162072 19.875
5.0172048 0.43314448 3.8382375 13.166667
5.2585492 0.46626103 3.8419836 17
5.5878563 0.45545247 3.8458147 14.5
5.8519015 0.46839342 3.8497689 17.833334
6.1180334 0.49041033 3.8534133 20.700001
6.4971347 0.44131523 3.8695951 16.25
6.7255201 0.48457259 3.8787289 16.5
6.9996619 0.55858517 3.8800573 17.5
7.7625017 0.51236278 3.8838725 1
-18.334616 0.60202044 3.7969494 32
-18.21814 0.82477933 3.7194989 16.333334
-6.4252858 0.73546714 3.6336067 15.666667
-6.2956181 0.88182807 3.6293352 17
-5.1883292 0.65371674 3.600035 0
-4.5524554 0.77899885 3.7155414 1
-4.3639584 0.69040251 3.6537657 8.666667
-4.0256224 0.77023655 3.6088636 15.142858
-3.7271125 0.73937666 3.6101754 9.3999996
-3.3727071 0.72872925 3.6094713 13.333333
-3.1527481 0.74793375 3.6151931 14.526316
-2.8295143 0.73781824 3.6143811 15.833333
-2.5391455 0.72576302 3.6182363 13.971429
-2.2651956 0.75038272 3.6183097 16.071428
-1.9580449 0.7388466 3.6243293 15.314285
-1.641628 0.74162745 3.6365259 16.641026
-1.3418978 0.73246825 3.640558 16.611111
-1.0394274 0.74312568 3.6529617 16.914286
-0.76360023 0.75691569 3.6554937 16.09091
-0.4474149 0.75427634 3.6703563 14.428572
-0.14276001 0.75587219 3.6834116 16.088236
0.16374683 0.73950058 3.6843903 15.806452
0.44249371 0.7517494 3.689522 14.22
0.7313996 0.73550975 3.6965263 15.315789
1.0579305 0.75899875 3.7135501 14.733334
1.3601391 0.72241926 3.7170005 20.188679
1.6161116 0.81619292 3.6866829 16.473684
1.9898714 0.83666623 3.7231126 14.4
2.2743502 0.79907954 3.7341352 14.2
2.5948536 0.74222034 3.747997 13.571428
2.8621771 0.74286985 3.7566833 14.8
3.1407332 0.78782344 3.7740681 14.7
3.4871194 0.7722556 3.7827549 15.25
3.7003152 0.79448903 3.7948732 19.25
4.0593219 0.77539074 3.7942348 12.6
4.3572154 0.7495656 3.8067944 15.5
4.6159849 0.71551597 3.8227928 19.200001
4.9141479 0.76974112 3.8332543 12
5.1972942 0.78164011 3.8218875 14.777778
5.5373406 0.76838934 3.8422978 12.111111
5.9266977 0.73295033 3.8427002 20.25
6.1173306 0.81462473 3.855978 18
6.4161267 0.76299524 3.8525372 17.5
6.7145514 0.80171192 3.8650646 14.428572
7.1135998 0.72320044 3.8786576 11.5
7.3123293 0.716133 3.8582354 8.75
-18.055357 0.96591973 3.7217624 20.666666
-17.944248 1.1010141 3.7117367 27
-6.1162271 1.0461864 3.6138313 21
-4.9400363 1.1060948 3.6829572 2
-4.7436962 0.98422486 3.6039481 8
-3.6524982 0.91087317 3.6072311 15
-3.3045332 1.0486565 3.6158583 2
-3.1860466 1.0741031 3.6091039 17
-2.840946 1.0691245 3.608861 13.444445
-2.5306027 1.0063211 3.6172659 16.277779
-2.2508295 1.0513463 3.6176169 15.115385
-1.9495592 1.061341 3.6210105 15.892858
-1.6323423 1.0610712 3.617202 15
-1.3470606 1.054736 3.6294525 15.6
-1.0383395 1.0412135 3.646425 16.953489
-0.76853508 1.0443851 3.6505606 14.297297
-0.46102098 1.0473738 3.6612608 16.473684
-0.15602101 1.0720118 3.6725826 15.357142
0.15426011 1.0358438 3.6783173 14.323529
0.43939939 1.0517905 3.6765375 11.4
0.74946028 1.0463924 3.6807275 13.86
1.0478715 1.0449661 3.6938882 17.913044
1.3505133 1.0610671 3.7105825 13.952381
1.6496823 1.0538325 3.7063272 15.269231
1.9353215 1.043366 3.7118945 14.133333
2.2444532 1.0312916 3.7288036 17
2.5331688 1.0677617 3.731668 19.466667
2.8267298 1.0707294 3.7431202 15.6875
3.1531465 1.0909601 3.7553899 15.727273
3.4781654 0.99074912 3.7709401 15.266666
3.750071 1.0628114 3.7844274 16.411764
4.0126905 1.038396 3.7858274 15.230769
4.3397946 1.0271455 3.7805154 19.285715
4.644515 1.0901227 3.7925932 19.25
4.924839 1.0054965 3.8084371 18.25
5.2822623 1.1078135 3.8171618 21.333334
5.5264359 1.0716534 3.8294983 13.090909
5.8909469 1.1150241 3.8373988 15.5
6.1618299 1.0506041 3.8421547 14.285714
6.4971528 1.035591 3.8577633 13.5
6.7597642 1.077225 3.8577983 10.571428
6.9907823 1.0865458 3.8663673 3
7.2104669 0.96217924 3.8605509 3
-17.772089 1.2839067 3.642736 13
-5.9104152 1.2674423 3.6020823 16
-5.1724195 1.3595681 3.6457608 7.5
-3.5428977 1.2877086 3.6103106 20
-3.1305091 1.3434762 3.6164477 6.5
-2.8731339 1.407454 3.6015568 12
-2.490032 1.3793923 3.6076758 15.888889
-2.2677164 1.3177181 3.6120205 14
-1.9252928 1.3704416 3.6224482 15.466666
-1.6558919 1.342409 3.6146798 15.652174
-1.339506 1.3296171 3.6158252 14.258064
-1.0383178 1.3417498 3.6241033 15.692307
-0.77421409 1.3428975 3.6366565 14.885715
-0.43871677 1.3474116 3.6473525 16.767443
-0.14447078 1.3616754 3.6532362 14.974359
0.17528349 1.3647368 3.6606398 11.625
0.42925441 1.3446944 3.6693015 13.478261
0.74825108 1.350682 3.6712563 11.3125
1.0442617 1.335986 3.6837986 11.452381
1.3437735 1.3471239 3.6919906 16.6
1.626368 1.3555647 3.6960521 16.233334
1.9545556 1.3620481 3.705658 16.851852
2.2419178 1.3715463 3.7130003 12.777778
2.5274656 1.3705645 3.7205546 14.142858
2.8624935 1.3629653 3.7277522 13.857142
3.2093611 1.3654984 3.7471972 15.692307
3.4668744 1.3593167 3.7573164 16.785715
3.7808199 1.337515 3.7759831 15.444445
4.0580645 1.343469 3.7783818 16.307692
4.361063 1.3513491 3.7747626 17.200001
4.6686335 1.3069119 3.7911704 17.555555
4.9868932 1.3435086 3.7957592 16.666666
5.2731752 1.3751189 3.808568 15.666667
5.5832958 1.3358915 3.8120735 19
5.8704081 1.3455057 3.8297594 16.428572
6.1650963 1.3213979 3.8372581 13.333333
6.3969946 1.408937 3.8438306 10
6.6431208 1.2635449 3.8472009 15.5
-3.4525397 1.6831169 3.6027243 22
-3.0650544 1.655959 3.6098032 2
-2.6212978 1.5060449 3.6026177 15
-2.229635 1.6211137 3.6053486 7.5
-1.9379089 1.6366014 3.6220717 18.714285
-1.6186099 1.5646418 3.613965 16.777779
-1.3400351 1.6636862 3.615345 14.529411
-1.0511101 1.644984 3.61957 16.096775
-0.78010798 1.6420219 3.6272776 17.121952
-0.43483981 1.6683321 3.6325099 13.818182
-0.15382878 1.6511291 3.6407714 14.960784
0.16828766 1.6333754 3.6446817 12.594595
0.44360724 1.6433159 3.6550691 12.631579
0.74724734 1.655669 3.6629791 13.243243
1.0350208 1.6222612 3.6672938 12.166667
1.3328029 1.6565545 3.6703961 14.341463
1.6482099 1.6521295 3.691915 16.114286
1.9797889 1.6277429 3.6994717 13.321428
2.2569129 1.6745309 3.7099504 13.21875
2.5460808 1.6490648 3.7043121 15.068966
2.8492205 1.6581616 3.7165537 11.681818
3.1331162 1.6543815 3.733434 15.066667
3.4293249 1.6767303 3.7290075 20.285715
3.7789793 1.6307788 3.75529 14
3.9990952 1.6617205 3.7819264 14.6
4.3562336 1.726684 3.7643609 17.299999
4.6103945 1.6260328 3.7767649 17.666666
4.9514108 1.6869934 3.7773476 16.428572
5.2700114 1.7080175 3.8026285 17.545454
5.5299721 1.6758504 3.8042078 15.666667
5.8657579 1.6733339 3.825655 11.75
6.1727934 1.6144186 3.8264606 9.625
6.4281731 1.5267792 3.8309276 4.6666665
-5.5358872 1.8073652 3.6196451 9
-2.5409329 1.9159594 3.6034439 11
-2.1737292 1.8540369 3.6106861 9.333333
-1.9290055 1.8751544 3.6110027 14
-1.7037072 1.9601643 3.6058812 15
-1.322019 1.9407851 3.6169322 16.578947
-1.0296419 1.8996105 3.6167004 14.15
-0.76285595 1.9481441 3.6188841 15.172414
-0.45277631 1.9593714 3.6209848 14.923077
-0.14228868 1.9484209 3.6338289 13.622642
0.15463908 1.9449492 3.638711 13.73913
0.45064691 1.948923 3.6498749 12.736842
0.75973618 1.9564342 3.6459305 12
1.036243 1.9264361 3.6567395 12.266666
1.3686595 1.9339809 3.6691296 13.723404
1.6452124 1.9495397 3.6772447 14.674418
1.9711331 1.9529681 3.6838932 13.294118
2.2643974 1.9731383 3.6956635 14.227273
2.5469854 1.9108984 3.7114577 13.172414
2.8397141 1.9524281 3.7093985 16.066668
3.1471264 1.9558462 3.7132123 14
3.4699185 1.9279166 3.7340658 18.210526
3.7496483 1.9550523 3.7297761 15.090909
4.0683012 1.9550812 3.7485001 14.466666
4.3579102 1.9254555 3.7690663 12.8
4.6625195 1.9641728 3.7700949 13.777778
4.9917741 1.9820434 3.7622948 14.714286
5.3356609 1.9712349 3.7903204 13
5.5425916 1.9355646 3.8010378 20.111111
5.8926153 1.9359354 3.7945292 8.7142859
-9.0917797 2.3446174 3.7375138 0
-2.0048168 2.2116642 3.6002448 19
-1.7073035 2.3528056 3.6112118 14
-1.3068194 2.2536013 3.6071947 12.5625
-1.0342805 2.253438 3.6146185 15.090909
-0.73261517 2.2445493 3.6204128 14.655172
-0.45455495 2.2381036 3.6210999 15.111111
-0.15532228 2.2544947 3.6198709 11.714286
0.1559485 2.2592432 3.6274836 11.613636
0.46708804 2.2527342 3.6367507 11.636364
0.7492373 2.2373362 3.6459172 11.583333
1.0541049 2.2410395 3.6469791 10.576923
1.3572682 2.238863 3.6550417 12
1.6377279 2.2580523 3.6655185 12.142858
1.9337465 2.2454205 3.6775136 11.827586
2.2274652 2.2403979 3.6772685 14.818182
2.5418661 2.2583327 3.6912801 11.692307
2.8549237 2.2791715 3.6924953 11.5
3.1164844 2.2641244 3.7030387 11.9375
3.4535844 2.2361448 3.7164254 14.923077
3.7520764 2.2545757 3.7248037 14.230769
4.0031171 2.2190185 3.7381363 16.333334
4.3806062 2.2331131 3.7543416 16.214285
4.6649919 2.2025526 3.7630887 15.777778
4.9958773 2.3190167 3.7600906 12.75
5.2504063 2.2545259 3.7761943 17.444445
5.5588403 2.2511139 3.7747755 6.6923075
-12.628993 2.644551 3.8618689 0
-1.3443588 2.5483682 3.6102288 9.333333
-1.0061961 2.5907917 3.6164882 11.444445
-0.7304076 2.5215683 3.6162608 11.7
-0.43810037 2.5339305 3.6182568 11.5
-0.14712843 2.5515828 3.6138194 13.423077
0.15638807 2.5490062 3.6218343 11.095238
0.44300917 2.5367293 3.6300156 11.977273
0.75461751 2.5361831 3.6327074 11.318182
1.0542165 2.5427794 3.6370385 10.190476
1.3632318 2.53933 3.6482825 12.088235
1.6488706 2.5401046 3.6545327 12.911765
1.9104149 2.5744867 3.6628582 11.538462
2.2463939 2.5285265 3.6773624 12.657143
2.5529294 2.5345433 3.6696754 11.846154
2.839164 2.5446513 3.6832078 12.785714
3.1448185 2.5808437 3.6946943 13.958333
3.4800918 2.5189345 3.7072787 15.266666
3.6997828 2.5474241 3.7261555 15.5
4.0209455 2.5458884 3.7243295 16.9
4.3744645 2.5561674 3.7399137 15
4.6423187 2.6065891 3.7457585 14.625
5.0019288 2.5792203 3.752183 15
5.2758069 2.4856987 3.7665658 9.1428576
5.4570799 2.4503994 3.7624261 2
-14.022626 2.8861387 3.8683596 20
-13.718795 2.8362982 3.8860092 17.666666
-12.79216 2.8418734 3.8693333 0
-1.0675913 2.8598118 3.6051617 16.25
-0.71708941 2.8427641 3.617048 10.823529
-0.44763455 2.8530228 3.6188953 10.947369
-0.15245201 2.8098321 3.6069875 8.8666668
0.17501026 2.8308229 3.6144295 12.055555
0.44070303 2.8240812 3.619951 12.103448
0.74384701 2.8525076 3.6244705 12.225806
1.0648135 2.8373981 3.6257739 10.16
1.3816105 2.8623919 3.6349001 13.344828
1.6493917 2.8507431 3.6414917 12.057143
1.9476041 2.8457963 3.6503131 10.692307
2.237664 2.8558133 3.6586678 13.064516
2.530237 2.8546259 3.6631985 12.25
2.8490989 2.8371639 3.6730447 10
3.1121814 2.8472295 3.6811421 13.714286
3.4362631 2.8628523 3.7083223 13.875
3.7483511 2.895704 3.725395 18.636364
4.0291014 2.8341689 3.7098417 13.769231
4.3490696 2.784266 3.7384486 13.8
4.6678028 2.803005 3.7451065 13.333333
4.9029965 2.7164025 3.7521834 12.5
-13.884742 3.0317593 3.8136454 20.5
-13.773497 3.1713524 3.8755794 22.5
-4.4334588 3.2304368 3.6106937 9
-0.69250214 3.1284733 3.6251612 8.75
-0.43244419 3.1548302 3.6371377 10.5
-0.15738456 3.1895549 3.6304233 5.1666665
0.18232681 3.1120231 3.6104634 9.6190472
0.45449781 3.1325719 3.6147919 9.8461542
0.7949568 3.1246767 3.6156733 8.1333332
1.0748109 3.1439738 3.6181784 8.2692308
1.3382468 3.1398034 3.622592 9.2857141
1.6546183 3.1507537 3.6330028 11.025641
1.9403409 3.1620066 3.6376319 12.258064
2.2406197 3.1464031 3.6508825 11.925926
2.57724 3.1495247 3.6565931 7.1363635
2.8527367 3.1248651 3.6659884 11.173913
3.128967 3.1268115 3.6745722 13.368421
3.4639471 3.1890702 3.7043715 13.272727
3.6958244 3.1386316 3.6811686 23.5
4.6240258 3.0545244 3.7287376 1
-13.839803 3.4868698 3.7111044 31
-13.739751 3.411963 3.752393 20
-0.62058866 3.4519124 3.6047769 6.5
-0.43773776 3.3392196 3.6093757 18
-0.11449882 3.4630318 3.6293824 12.666667
0.18652689 3.5107515 3.6310799 10
0.46683627 3.4352195 3.6127732 8.8571424
0.72985488 3.4394417 3.6157513 12.25
1.0758638 3.4872894 3.6184165 6.125
1.371556 3.4396911 3.6210008 9.9200001
1.6602197 3.4345114 3.6218996 9.7931032
1.9488293 3.4809859 3.6311352 10.657895
2.2524261 3.4250193 3.6443794 10.030303
2.5328128 3.4129448 3.6522698 10.818182
2.8377624 3.4785342 3.652904 11.961538
3.1429064 3.4488945 3.6668105 13.428572
3.4690995 3.4505064 3.68663 12.176471
3.7053385 3.4569798 3.6730707 16.764706
-15.015782 3.89255 3.8427079 18
-14.815492 3.7885268 3.8631363 24
-14.05875 3.6596336 3.7422857 27.333334
-0.61708945 3.6854286 3.6030722 14
-0.079745919 3.7013016 3.6113446 9.666667
0.17717502 3.7699115 3.6395283 2
0.42068523 3.8470366 3.6112695 0.5
0.84908348 3.6984909 3.6155896 10.714286
1.1444036 3.7770095 3.6043191 8.75
1.3441509 3.7320039 3.6184056 5.9565215
1.6659219 3.7193918 3.619257 9.9259262
1.9554048 3.7387354 3.6253514 11.038462
2.2619605 3.7224753 3.6332128 11.071428
2.5590286 3.7047698 3.6467736 13.625
2.8623111 3.7314401 3.648906 12.75
3.1500523 3.7371852 3.663233 12.5
3.4677691 3.7679362 3.67679 12.117647
3.7171762 3.7482572 3.6716173 5.25
0.23768246 3.9745359 3.6180105 10.5
0.62603247 4.0415058 3.6055949 8
1.0642719 4.0629911 3.6034932 3.5
1.3508022 4.0832143 3.6067433 8
1.6785021 4.0705352 3.6152635 8.8000002
1.926644 4.0328579 3.6244583 10.56
2.2270262 4.0417404 3.6280186 12.3
2.5283821 4.0358191 3.6330237 14.2
2.8461287 4.0306158 3.6477051 11.625
3.1885202 4.0364537 3.6579733 10.454545
3.4316177 4.0164208 3.649786 7.5833335
3.619132 3.9089372 3.6589971 19
1.3169049 4.2733793 3.6094511 10.666667
1.6177448 4.2170382 3.6051095 17
1.97314 4.3475757 3.6159296 16.09091
2.2526577 4.3480711 3.6315429 9
2.561584 4.3891139 3.6306622 13.833333
2.8438244 4.3649731 3.6494191 5.625
3.1189377 4.3075638 3.6317775 5.4444447
3.3200283 4.2645168 3.6369531 1
-3.0425119 4.6881976 3.6205585 9
1.1135027 4.5119224 3.6126246 5
1.2994795 4.7134218 3.6016035 3
1.6156063 4.6374011 3.6187396 3.75
1.9665533 4.6933403 3.6134775 10.375
2.2576895 4.6615763 3.622508 9.625
2.5967705 4.6317611 3.64114 9.9285717
2.7264814 4.6065354 3.6676292 4.75
1.733301 4.8959537 3.6097641 5
1.915592 4.9552937 3.6069267 10.75
2.188817 4.9625101 3.6278293 9.25
2.5127387 4.8677731 3.6131172 1.25
-4.5798445 5.3175883 3.7223451 16.25
-4.4080925 5.2346272 3.7139409 19.666666
-4.0990319 5.2935328 3.7740035 14
1.4217536 5.1743541 3.6007903 12
1.9244907 5.1905465 3.6545429 5
2.1079805 5.1235862 3.6152036 2
-4.6134434 5.4845281 3.7432449 17.666666
1.4414824 5.6258287 3.6900811 5
-13.18279 5.9472966 3.8952422 25
0.89271456 5.9345508 3.6461947 0
0.99271411 5.7333951 3.6068797 2
1.4074442 5.8262691 3.8130317 2
-12.929684 6.0199852 3.8743749 26
1.0643893 6.1082664 3.8352695 2
-13.291535 6.6228681 3.6137006 15
-6.0547781 6.8909111 3.8914237 22
-5.7687454 6.7873635 3.8954589 21
0.30126673 6.6164041 3.6455042 2
-6.4555168 7.1900606 3.8990786 20
-6.1456194 7.1345115 3.8796031 20.5
-10.660303 7.4619379 3.8760543 20
-6.6295896 7.3473597 3.8816514 22.5
-6.3852234 7.3424087 3.8680966 20
-6.1635513 7.2789683 3.8678977 19.333334
-10.856521 7.6345787 3.8685617 21
-7.000042 7.6715598 3.8506196 28.5
-6.7341475 7.5600481 3.8521667 20.25
-6.5870242 7.5641232 3.8607149 23
-12.173792 7.9494042 3.7136197 24.5
-11.25497 8.0995827 3.8672774 0
-10.931476 7.9122639 3.8640027 14
-7.4348469 8.0653944 3.8228333 19
-7.02669 7.8699045 3.8427031 25.5
-6.787065 7.8176742 3.8380284 3
-2.1929121 8.0232592 3.6901829 18.333334
-1.9975842 8.0034971 3.6829422 19.333334
-11.800673 8.3934746 3.6363211 24
-7.8246746 8.3535147 3.8161111 15
-7.6348357 8.283349 3.8487091 19
-7.3527136 8.2772236 3.8140469 14
-7.1549058 8.1313171 3.8342063 13
-2.2789192 8.1691294 3.6888645 16
-11.588426 8.5870619 3.8085597 24
-8.1137781 8.6017666 3.8584356 21
-7.9130802 8.5605812 3.7947769 22.75
-7.6040111 8.4132462 3.8137374 29
-11.452429 8.8185768 3.7581384 24
-8.4555578 8.945467 3.7930794 22.5
-8.1896696 8.9631004 3.7879603 24
-8.0290642 8.8688469 3.7946291 29
-11.286142 9.0157309 3.7650652 25
-8.8550692 9.2444773 3.773478 25
-8.5829411 9.1596556 3.7777061 23.25
-2.6425657 9.2683134 3.7451115 1
-2.3908942 9.0291395 3.892169 9
-9.0401926 9.4325085 3.7832561 21.5
-8.8103027 9.4536409 3.7636151 23.25
-3.1443229 9.4350996 3.8933437 31
-2.8122973 9.392458 3.8131428 8
-3.1379046 9.6940184 3.7808208 3
-9.4365215 9.9640112 3.7383146 22
-3.9324043 10.151425 3.8403726 33
-3.6909029 10.08263 3.83868 35
-3.5984485 10.075525 3.6581538 1
-4.2894125 10.408039 3.8283935 2
-4.8240051 10.777074 3.8507519 5
-4.3303037 10.619681 3.8255305 2
-13.935211 11.037033 3.75124 6
-13.569748 10.835605 3.7594943 3.5
-10.751904 10.986561 3.6536763 4
-14.065936 11.246077 3.6255908 3
-11.231215 11.265717 3.7424355 4
-11.774309 11.696421 3.8457167 4
-11.480738 11.524185 3.7376733 2.5
-11.365816 11.464919 3.6575584 10
-5.8059859 11.631667 3.7736623 2
-5.649147 11.69291 3.7432494 13
-11.794091 11.767129 3.770267 4.5
-5.889616 11.738643 3.7567692 30
-12.355536 12.221968 3.766036 3
-12.098911 12.064245 3.6181972 5
-6.8112073 12.523179 3.7184386 21
-6.719255 14.660604 3.8675647 28
-6.9820962 15.595874 3.8929944 12
-7.3621001 15.878004 3.8967531 6
-7.6330194 15.936985 3.8783982 16.5
-7.3978672 16.047749 3.8159266 2
-7.8478374 16.413013 3.836972 1
-8.717205 16.784693 3.8367977 17
-8.252264 16.669106 3.8406944 8
-8.7862787 17.035784 3.799572 17
-10.077214 17.927845 3.8542089 12
-11.054852 18.75997 3.6819391 9
-13.892719 -39.117298 4.0004253 11
-5.1312609 -34.545906 4.1710982 6
-8.6425314 -32.901031 3.9182811 22
17.542181 -28.57152 3.9850266 13
-20.215141 -26.914742 4.0009937 11
19.829529 -24.815594 4.0484247 9
20.588936 -24.725559 4.1438026 13
21.043947 -24.262487 4.0667901 14
-29.269325 -23.830589 3.9019573 6
21.489166 -23.721004 3.9477146 14
4.1421394 -23.151194 3.9378302 8
4.5724564 -22.832537 4.1152315 25
4.7010512 -22.713099 4.1736054 9
4.937417 -22.585676 4.1385322 7
5.2133198 -22.413296 3.9225557 5
22.578293 -22.383591 4.099185 11.25
5.396668 -22.189047 3.9115419 7
4.0877075 -21.657267 4.1738172 6
5.6010389 -21.811043 3.9921155 5.5
5.7462897 -21.6712 4.0842881 6.1999998
23.211391 -21.64674 3.9991436 11
5.9247847 -21.462038 3.9337831 10.5
6.0356026 -21.373194 4.0188174 7.6666665
23.301018 -21.54319 4.0501819 13
2.495153 -21.032063 4.1548762 8
6.0843458 -21.24966 3.9470789 7
14.616611 -21.162031 3.9151068 8
2.8001325 -20.869381 4.1404848 9
3.4902077 -20.720522 4.1840677 22
6.6048551 -20.800558 4.0587206 5
23.917112 -20.840576 3.9411469 14
6.7214942 -20.570415 3.9958386 8.8000002
7.045135 -20.174904 4.0920453 6
7.1387434 -19.957541 4.078969 6
7.3196535 -19.858459 4.1851478 9
1.8531578 -19.583473 3.9233856 4
2.911196 -19.617073 4.1554708 9.5
4.6466484 -19.771248 4.1778417 10
7.6279044 -19.553143 3.9132943 8
-3.857969 -19.202908 4.0631442 4
4.2964396 -19.365175 4.1778159 19
7.6821289 -19.409721 4.0399218 5.3333335
7.8282943 -19.205046 4.153378 6
3.7040291 -18.949303 4.1053467 8
4.8438358 -18.991026 4.178556 6
7.8705716 -19.111765 4.1319323 6
-3.5733583 -18.764673 4.130487 4
4.0114751 -18.621025 4.0027771 9
4.7427402 -18.608128 4.1450491 17
5.3315506 -18.855463 4.1060343 11
6.5511804 -18.89852 4.1393809 5
7.1658058 -18.602312 4.1795115 13
8.2345476 -18.819044 4.0313029 6
-3.2066867 -18.380999 4.0766788 4
3.9496858 -18.508497 4.1700048 3
4.2537055 -18.481773 4.128933 8
5.0236721 -18.474483 4.1435471 7
6.6769915 -18.363457 4.164979 8
8.3541889 -18.492353 4.0621748 7
8.4074879 -18.541601 3.9684038 7
4.1521387 -18.2488 4.1351056 7.6666665
4.4115219 -18.054438 4.0123591 6
4.6446834 -18.042158 4.1605101 6
5.2569361 -18.259033 4.0761499 5
6.9309936 -18.093079 4.1919684 5
8.037921 -18.148937 4.1995907 10
4.4197736 -17.787722 4.0962887 5
4.7279234 -17.776123 4.0574751 7
7.6694956 -17.767532 4.1094775 3
4.8918023 -17.326097 4.1102099 8
6.3146863 -17.253891 4.1293411 6
6.9227233 -17.166231 4.0736699 5
-3.1474328 -16.900219 4.0124359 12
-2.2401383 -17.003674 4.1800766 7.5
5.048964 -17.092457 4.1232567 7
5.1464291 -16.999489 4.1348124 11
7.3369246 -16.89344 4.1148286 4
7.7300167 -16.887665 4.1884513 6
9.4845457 -16.95883 4.036901 16.5
9.6143866 -16.859631 4.027936 15
-2.8990505 -16.652649 4.12181 17.5
-1.7148083 -16.570454 4.1235757 4
6.1733027 -16.518517 4.0159922 5
6.8914585 -16.743193 4.1925302 8
7.3329773 -16.641615 4.104475 4
9.7539167 -16.621595 4.0434341 18.833334
5.8548694 -16.218052 4.1581903 5
9.8404894 -16.471548 4.1839547 23
9.9666138 -16.38884 4.0234694 26.666666
27.25069 -16.437082 4.0081596 21
-1.5435791 -16.18898 3.9160399 6
1.3880469 -16.113251 4.1591167 31
1.6598377 -16.049522 4.0098171 7
5.9282675 -16.106979 4.1241031 6.5
10.283164 -16.005339 4.0415516 28
1.9200599 -15.778791 4.17102 6.5
6.2124429 -15.742005 4.0836401 8.333333
10.427476 -15.709523 4.0968795 79
10.507725 -15.640625 3.9432633 61
6.812983 -15.525729 4.0502672 5
6.9436793 -15.58593 4.0471983 3
10.670792 -15.441552 4.0317588 29.5
6.7151093 -15.140964 4.1030245 5.5999999
10.927036 -15.124013 4.090189 30.5
6.6534476 -14.787734 4.1370983 9
11.069046 -14.974739 4.02389 45.666668
11.209926 -14.804051 3.9794397 42.333332
6.8662548 -14.478181 4.0826874 12.333333
7.2165942 -14.437335 4.0220585 8
7.562747 -14.623342 3.9243486 6
7.0612831 -14.309261 4.0605893 12.5
11.609824 -14.30171 4.0284801 63.5
11.755094 -14.15347 4.0292611 28.666666
11.8875 -13.989225 4.0175815 41.799999
12.026522 -13.826702 4.1254272 24
12.1574 -13.67589 4.0163522 38.5
12.397298 -13.394217 4.0572982 25.75
-2.6386659 -12.943771 3.9584801 1
12.714529 -13.000551 4.0085111 48.799999
-2.7600172 -12.794807 4.1340981 2
-2.599416 -12.719481 4.0984063 15.7
0.75014931 -12.640109 4.1491408 5
12.826974 -12.888379 3.9340224 38
13.000248 -12.684076 4.0530615 35
-2.4615965 -12.533666 4.0651436 19.5
-2.2788119 -12.358471 4.0927343 17.5
0.45648274 -12.403601 4.1099052 6
0.62283927 -12.546044 4.1664181 5
13.155385 -12.471913 4.0565686 72
13.291809 -12.302985 4.0800185 65
22.177237 -12.358881 3.9029598 9
-2.1777439 -12.186512 4.0559263 12.5
-2.0195873 -12.058133 4.0468016 11.5
-0.0061972728 -12.033257 4.0883069 5
0.1654287 -12.168983 4.0404081 6
2.821408 -12.198249 4.1881409 10
13.404446 -12.193309 4.0152678 33.666668
13.548987 -12.000385 4.1487041 25
-1.9200929 -11.907677 4.0172873 19.111111
-1.7881222 -11.762047 3.9998016 22.5
-0.3449302 -11.728176 4.0279484 7.25
-0.13787648 -11.929358 4.0157332 7.4000001
0.48165795 -11.79626 4.1984043 17.5
13.672287 -11.879464 3.9901505 46.142857
-1.6360697 -11.549137 4.0513935 16.76923
-0.63669944 -11.500523 4.1326914 7.5
-0.49653339 -11.600586 4.0789723 9.5384617
-0.20304237 -11.648141 4.1959424 14
0.33692312 -11.524853 4.1712017 14
14.033972 -11.524427 4.1396546 27.75
14.119845 -11.461808 4.1402054 26
-1.3317765 -11.215714 4.0553732 23.875
-0.99654084 -11.198746 3.9501464 7
-0.7236433 -11.288383 4.0928521 9.1999998
-0.47298235 -11.234417 4.1657162 13.75
-0.12336411 -11.200662 4.1826739 8
0.11194219 -11.393188 4.1541505 8
0.3476153 -11.250381 4.1914811 7
1.1281736 -11.266861 4.176024 18
1.2062681 -11.322997 4.1929665 9
14.280745 -11.273017 4.00776 34.599998
-1.2989594 -10.977203 4.1317768 15
-1.0906398 -11.036339 4.120492 11.857142
-0.73225278 -10.928943 4.1428089 9.333333
-0.37546054 -10.957738 4.1786079 7.6666665
-0.17601858 -10.905402 4.1779099 12.5
0.25734571 -10.908676 4.1840792 11
0.41312644 -11.019305 4.1821389 12
1.0412287 -10.817613 4.1885114 10
1.9846424 -10.97053 4.0824618 13
14.570114 -10.928116 3.9995353 17.166666
-1.7116886 -10.586733 4.1171193 4.25
-1.4466648 -10.666549 4.139358 14.333333
-1.1444513 -10.730173 4.1653452 10
-0.73341054 -10.611936 4.1422396 11.6
-0.56605935 -10.704466 4.1628656 14
-0.15182093 -10.639404 4.1453032 12.2
0.16839714 -10.732128 4.1625237 14.333333
0.45827311 -10.639437 4.1662445 13.75
0.73890907 -10.651858 4.1809483 12.666667
1.5575793 -10.616058 4.1867743 18
1.8716928 -10.597814 4.1655273 14
2.2595036 -10.614165 4.0322971 13.416667
2.6685576 -10.529724 3.9305391 14.5
2.8113909 -10.573129 4.0513401 10.333333
14.651233 -10.695354 4.0446763 14
14.929772 -10.507367 4.0453038 9
-1.8834887 -10.409333 4.0839467 5
-1.5782781 -10.445126 4.1149859 6.6666665
-1.0509444 -10.357108 4.1465068 9
-0.84522486 -10.327861 4.1354675 6.6666665
-0.13890243 -10.420952 4.1533399 17
0.083204821 -10.430456 4.1666951 10
0.50576556 -10.371724 4.1573129 12
0.75304514 -10.363172 4.1699419 15.75
1.1479232 -10.4361 4.1755414 17
1.2408805 -10.460442 4.1744618 19
1.6284149 -10.241362 4.1885424 5
1.9677967 -10.430267 4.1667705 21
2.5709307 -10.419175 3.9982774 12.666667
2.7103336 -10.497885 4.0961161 24
3.4938297 -10.453454 4.1879773 10
14.677439 -10.484035 4.0532956 9
14.985193 -10.371692 4.0374379 40
-2.3738878 -10.061202 4.0678878 5
-1.988405 -10.104336 4.0853281 10.25
-1.69463 -10.041581 4.1080046 10
-1.275538 -10.157911 4.1111145 10.5
-1.0609415 -10.050923 4.1025953 11.25
-0.62500906 -10.07995 4.1120558 11
-0.55964935 -9.9221754 4.0736861 18
-0.051620431 -10.100121 4.1291361 10.5
0.20038748 -10.054093 4.1522727 9
0.72338861 -10.045441 4.1408601 16.200001
1.0726722 -10.050094 4.1759262 12.333333
1.4169043 -10.121203 4.1704597 11
1.6820872 -9.9713726 4.1986451 2
2.6188741 -10.109179 4.1648808 22.5
3.6125228 -10.085981 4.1781631 24
13.907097 -10.102693 4.0535984 11
19.681721 -9.9657021 4.0424862 8
-2.7600257 -9.7031956 4.0311069 5
-2.5065346 -9.6575146 4.0643086 12.5
-2.2488117 -9.7740097 4.0769844 10.333333
-2.0322773 -9.7705917 4.1010566 7.3333335
-1.6612304 -9.777133 4.0781097 17.333334
-1.3175761 -9.7669926 4.0864787 13
-1.0399125 -9.7471142 4.1059775 16
-0.71092999 -9.7661009 4.1195655 18
-0.39023367 -9.8311691 4.1411414 7
-0.21196933 -9.7337561 4.1012578 18.666666
0.19724198 -9.8640575 4.1114626 8
0.4416191 -9.6280727 4.1126566 15.5
0.77027798 -9.6360922 4.1352973 8
1.0818944 -9.7727785 4.1628008 7
1.3581665 -9.8378582 4.1429358 17.75
1.6613779 -9.8354292 4.1895852 20.5
2.0300519 -9.6758385 4.1669612 12
2.1754189 -9.7198067 4.1896124 6.5
2.4955645 -9.7702751 4.188489 15.5
3.507241 -9.6005344 4.1529145 4
4.031549 -9.8651705 4.1830254 18
4.3890219 -9.6034107 4.1775937 29
19.390844 -9.6047068 4.0339179 8
-3.0340478 -9.5441093 4.0239353 3
-2.9119544 -9.468626 4.0341387 6.5
-2.312057 -9.3762426 4.0448341 14.333333
-2.0111036 -9.4893913 4.0472708 14.25
-1.6580155 -9.4214544 4.0639071 14.5
-1.3794405 -9.3553772 4.0803947 19.5
-1.0777471 -9.4385014 4.0824881 16.799999
-0.43870482 -9.3495607 4.0976596 18.714285
-0.15520105 -9.3365154 4.095396 21.5
0.18204568 -9.412878 4.1172857 20.200001
0.46195662 -9.4788427 4.1282282 15.833333
0.71813303 -9.4024057 4.1397104 16.25
1.0935038 -9.4297628 4.138483 14.833333
1.2929327 -9.3270893 4.1437736 29
1.6396154 -9.4428759 4.1526661 19
1.9473448 -9.40028 4.1411085 12.5
2.272244 -9.4395847 4.1070814 25
2.8050599 -9.4120989 4.1717834 15.6
3.116729 -9.5380697 4.1896968 17
3.5082679 -9.4756584 4.1972513 22.5
4.6765003 -9.3996067 4.1834803 19
12.800705 -9.3458967 4.0289335 8
12.970199 -9.3557281 4.1497684 8
-3.4347801 -9.0777187 4.0048218 10
-3.2101758 -9.160718 4.0067344 10.666667
-2.8220832 -9.1206617 4.0216236 10.166667
-2.5496476 -9.1284513 4.0242562 9.833333
-2.2578635 -9.1491842 4.0452781 12
-1.9110578 -9.1157141 4.0466681 10.285714
-1.5756433 -9.1691532 4.0586443 14.6
-1.3337495 -9.142746 4.0586662 12.8
-0.99915618 -9.1468868 4.0696325 14.8
-0.7223016 -9.2161474 4.0661392 15.5
-0.36276743 -9.0693035 4.089067 14.666667
-0.19563191 -9.1614046 4.087225 17
0.071813844 -9.139164 4.1009674 16.75
0.54740405 -9.1011467 4.117651 7.5
0.75129366 -9.1572475 4.1294451 21.799999
1.0637416 -9.1632214 4.1296892 9.3999996
1.3435789 -9.1313477 4.1348596 21.333334
1.6160297 -9.1678276 4.1541471 12
1.9676603 -9.1765575 4.1928778 12
2.2461374 -9.1452761 4.1439095 21.333334
2.5818877 -9.264926 4.1445198 25
2.9924967 -9.2824287 4.1667442 21
3.135355 -9.0794773 4.1791649 17.666666
3.5550289 -9.155654 4.188705 14.333333
3.8144321 -9.221674 4.1935782 12.5
4.0562859 -9.1501417 4.1984773 12
5.1991811 -9.1487541 4.1994247 23
12.714156 -9.1842098 4.1534152 6
18.764498 -9.134573 4.0517921 5
-3.7962055 -8.7879009 3.9889646 4.25
-3.4230011 -8.8629723 4.0141797 3.6666667
-3.1725993 -8.8611984 4.0075455 7.5
-2.841958 -8.8267384 4.0140934 6.25
-2.6038492 -8.8607693 4.0202646 9.1999998
-2.176223 -8.9287844 4.0286241 8.25
-1.9738995 -8.8405495 4.0327673 18.666666
-1.6857806 -8.9340658 4.0523329 13.666667
-1.3352176 -8.901022 4.0453215 17.125
-1.0047765 -8.8465996 4.0671778 13.75
-0.69068658 -8.786438 4.0543089 18.25
-0.47733599 -8.7804794 4.0467529 23
-0.19038734 -8.7477932 4.0742226 21
0.10772189 -8.8905802 4.0714827 21.666666
0.41332063 -8.9064808 4.1006327 10
0.83774972 -8.7912445 4.104146 13.25
1.0320054 -8.9233694 4.1095629 10
1.4040573 -8.8210554 4.1403589 20
1.5884078 -8.8721294 4.1506052 20.5
1.9257267 -8.8815374 4.1560464 17.428572
2.2170768 -8.7752857 4.1308627 24
2.4830084 -8.7762957 4.154367 27.333334
2.7672501 -8.9321051 4.171834 12.5
3.1987033 -8.9287233 4.137125 20
3.71645 -8.8675528 4.1941752 20.666666
4.0501709 -8.7471561 4.1773386 22.5
4.4385142 -8.8141537 4.1930342 25
4.7089386 -8.7760305 4.1890488 18
12.151066 -8.7402592 4.1169329 6
-4.3219576 -8.401226 3.9214101 3
-4.0572033 -8.5707541 3.9576921 3.6666667
-3.7080231 -8.5997038 3.9716392 10.2
-3.4218254 -8.6844263 4.0120344 12
-3.1609635 -8.5805836 3.9843407 14.75
-2.7264099 -8.4020557 3.9839664 11
-2.5124421 -8.5458307 4.0022717 4.5
-2.2229378 -8.5663023 4.022841 9.6000004
-1.9511685 -8.516119 4.0379715 7
-1.6638997 -8.5210876 4.0323124 17
-1.3554544 -8.6072292 4.0201044 20.5
-1.0315251 -8.4980564 4.049664 21.666666
-0.72359985 -8.5625191 4.048749 18.200001
-0.40540811 -8.5383921 4.0466514 15.5
-0.1210839 -8.6231995 4.0851598 11
0.13334422 -8.546133 4.0710821 19.142857
0.49936274 -8.5351315 4.0902638 12
0.787655 -8.5480099 4.1026998 16.5
1.0284225 -8.611845 4.1121197 16.25
1.3090866 -8.5616665 4.117764 22.75
1.6583464 -8.5217199 4.1339021 18
1.9372216 -8.5848083 4.1444092 20.333334
2.2871144 -8.5225267 4.1198468 21.5
2.5040872 -8.4853697 4.1513319 28.333334
2.8393059 -8.5556135 4.1374493 15.666667
3.0809598 -8.4773712 4.1528621 22
3.4960442 -8.5737829 4.1772003 16
3.8433528 -8.412487 4.1952682 20
4.3986292 -8.6540909 4.1890526 17.5
4.5827575 -8.4613504 4.1735215 26
5.9084892 -8.5500746 4.1820793 25
11.979701 -8.6828718 4.0306988 3
12.03982 -8.5941763 4.1284666 11
-4.5686941 -8.1707325 3.9297342 6.5
-4.4130759 -8.2976503 3.9305704 5.5
-3.4085951 -8.3291979 3.9777489 11.5
-3.1883473 -8.3470545 3.9697556 10
-2.8543463 -8.3017216 3.9937549 16
-2.4552138 -8.2933083 3.9942255 6.75
-2.3019664 -8.3120155 3.9933386 14.25
-1.9157126 -8.1510792 4.0066938 14
-1.6419624 -8.2146645 3.99775 16.833334
-1.4032798 -8.2566071 4.0211549 8.5
-1.0990429 -8.2175522 4.0096273 22.5
-0.44056696 -8.2957487 4.0510588 19.857143
-0.059518389 -8.2468739 4.046875 17.5
0.10970875 -8.2381134 4.0754266 20.200001
0.42442244 -8.1556158 4.0604362 7
0.7031855 -8.2243567 4.0919695 16.714285
0.97700572 -8.2855291 4.0792928 16.333334
1.2547151 -8.185257 4.0931034 17.333334
1.6116744 -8.1739178 4.1095238 20.5
1.958792 -8.2859993 4.1096044 15.888889
2.3084438 -8.299222 4.1214752 23
2.5452986 -8.2267599 4.1394024 24.333334
2.8460968 -8.2862024 4.1468387 20.142857
3.2340734 -8.3937626 4.1567955 17
3.3980362 -8.3645668 4.1409659 29
4.0310984 -8.2921562 4.1857357 21
4.234302 -8.3530235 4.1772738 22
4.7881804 -8.2387781 4.1805325 21
5.0390453 -8.1867447 4.18297 24
5.2294888 -8.174634 4.1842914 23
5.5329862 -8.3847351 4.194561 22
5.8559151 -8.3395576 4.1615429 18
12.109489 -8.2772388 4.0298724 14
-4.8057046 -8.0846024 3.9194102 2
-4.6360183 -7.9535012 3.9286129 11.333333
-4.4922857 -7.8632164 3.9391892 7.5
-4.0692973 -7.9054785 3.9447963 21.4
-3.6899366 -7.9565201 3.9426622 21
-3.3092241 -7.8185234 3.9516232 3
-3.1304967 -7.9429407 3.9544153 9.5
-2.8135483 -7.9199347 3.9616313 14.8
-2.6059766 -7.9485512 3.9664483 7
-2.235949 -7.9508662 3.9789886 13
-1.929565 -7.8703589 3.9685335 18.333334
-1.6208431 -7.9533062 3.9994409 14.125
-1.3720744 -7.9181752 3.991462 20
-0.9843592 -7.9726214 4.0142636 19.142857
-0.77410942 -7.9045839 4.0236673 14.428572
-0.44118458 -7.9548535 4.0276651 20.333334
-0.22803073 -7.944304 4.0318317 22.6
0.13304889 -7.9367194 4.0452909 20.571428
0.43125764 -7.9357719 4.0484452 19.666666
0.71627587 -7.9855118 4.0798569 12.2
1.0552535 -7.8821349 4.0729403 12
1.4830209 -7.9075265 4.0826488 5
1.6512176 -7.9228516 4.0828276 20.5
2.0652688 -8.0052834 4.1175909 24
2.2849727 -7.9425149 4.1121178 22.142857
2.5598562 -7.9506264 4.1090207 16
2.8622675 -7.9958591 4.1316414 24.5
3.1440139 -7.9730382 4.133986 21
3.4608583 -8.0225487 4.1545348 16
3.7401376 -7.9392114 4.1366587 11.5
4.1441455 -7.9668655 4.1863556 13
4.3740454 -7.9077449 4.1561475 14
4.6833267 -8.0699177 4.1808295 17
5.3971872 -7.9324446 4.1746755 22
5.5934238 -7.8048267 4.1753531 24
5.7989855 -7.8947697 4.1594496 34
6.6562448 -7.9716167 4.1885457 25
12.329874 -8.0917377 4.107439 6
-25.393839 -7.6418223 4.0472054 10
-4.9426627 -7.5979018 3.9096849 14
-4.601779 -7.5909839 3.9058673 11.666667
-4.2991729 -7.623745 3.9276526 1.6666666
-3.7028275 -7.596436 3.9371681 5.3333335
-3.4304209 -7.7114687 3.9473002 10.75
-3.2258508 -7.6273174 3.9454668 8.333333
-2.908262 -7.6118226 3.9509611 14.333333
-2.5844731 -7.7054238 3.9674656 8.1111107
-2.237077 -7.6297493 3.9703305 8.666667
-1.9505928 -7.6196871 3.9786341 11.545455
-1.6496967 -7.6022182 3.9815438 13
-1.3466454 -7.6137757 3.9899597 10.25
-1.0675439 -7.6074104 4.0035048 16.375
-0.74374074 -7.6578174 4.0101171 15.111111
-0.50915956 -7.6474304 4.0129728 17.111111
-0.19538599 -7.6645608 4.0218563 16.444445
0.16537961 -7.6766138 4.0473604 11.857142
0.40347186 -7.6666994 4.0430965 19.125
0.74196643 -7.6665549 4.0454006 21.375
0.96996242 -7.6477175 4.0622988 13.4
1.3761151 -7.6496282 4.0749531 21.25
1.6467327 -7.6412568 4.0667009 20.666666
1.9837387 -7.6381378 4.0770106 25.4
2.1386425 -7.616045 4.0755825 20
2.4704881 -7.6013784 4.1135268 16.25
2.7587883 -7.6379666 4.104506 25.666666
3.1217546 -7.7209072 4.1204786 28
3.4918449 -7.6639471 4.1348438 23.799999
3.7624798 -7.6248298 4.1284208 20.25
4.0881653 -7.562089 4.1637416 23
4.5901966 -7.6543455 4.1842995 11
4.818274 -7.6476297 4.1638365 25
5.2897949 -7.7096853 4.1896539 27
5.685801 -7.6728535 4.1941347 27
5.8105111 -7.6449218 4.1809936 24.666666
6.4213638 -7.6428666 4.184072 31
6.9896226 -7.5652652 4.1904211 21.5
-5.5182643 -7.2830424 4.0390134 2.5
-5.0735931 -7.495244 3.910094 6
-4.6402407 -7.3990459 3.9180419 3
-4.4410906 -7.4458351 3.9263659 5.5
-4.0624018 -7.3311172 3.9268229 9
-3.8917596 -7.2940311 3.9174509 22
-3.4438095 -7.3478308 3.9325867 8.5
-3.0905547 -7.3472109 3.9313872 8.25
-2.8972452 -7.3885055 3.940527 6.3333335
-2.5523982 -7.3243537 3.946707 10
-2.214844 -7.2802072 3.9522519 11
-1.9328334 -7.3576279 3.9631858 12.461538
-1.6397384 -7.3318052 3.9656563 11.9
-1.3155563 -7.3196588 3.9621892 15.857142
-1.0520388 -7.3841691 3.9842308 14.4
-0.7144556 -7.4050484 3.997823 15.833333
-0.39947337 -7.337851 4.0037231 16.6
-0.13382293 -7.3706417 4.0131354 11.083333
0.1596022 -7.3747625 4.0308623 15.8
0.43752947 -7.3142982 4.0360599 12.8
0.75774193 -7.3835659 4.0405922 17.307692
1.0588785 -7.3156171 4.0467315 16.714285
1.3703017 -7.2754326 4.0641432 17.5
1.635111 -7.3408933 4.0719895 22.25
1.9402714 -7.3069043 4.0691581 20.5
2.2504549 -7.3472128 4.078836 19.888889
2.5076528 -7.3512459 4.0729628 20.75
2.746634 -7.3653879 4.1063485 9
3.1063056 -7.3663216 4.1005926 19.799999
3.474668 -7.3361077 4.1280231 19
3.7710278 -7.3580232 4.1441836 18.833334
4.014926 -7.278841 4.1124439 26.75
4.41821 -7.391748 4.1373987 26.5
4.6981201 -7.3671861 4.1657753 19
5.3475857 -7.2225657 4.1443081 27
5.8730073 -7.3990736 4.1813316 24.25
6.1423397 -7.3236194 4.1807275 24
7.0013318 -7.2272854 4.1677456 33
7.3417854 -7.3179421 4.1787729 29
8.0325947 -7.3409619 4.1920819 27
-24.840771 -6.9139457 4.1769848 8
-14.488583 -7.0131989 4.1866617 13
-5.7540698 -7.15729 3.9880071 2
-4.7700024 -7.1661949 3.902693 5
-4.4077625 -7.1032257 3.9032414 2
-4.15203 -7.0103416 3.9005249 24
-3.6891425 -7.1180935 3.9227281 5.5
-3.4735308 -7.103889 3.9232547 7
-3.1858261 -7.028698 3.9124262 4.8333335
-2.7360244 -7.1190724 3.9297819 18
-2.5515549 -7.0347805 3.9321451 5.9166665
-2.1803064 -7.0065222 3.927943 9.1428576
-1.9399687 -7.0384736 3.9445751 10.5
-1.6919489 -7.051692 3.9505467 11.9
-1.3043053 -7.0909486 3.9640532 15.333333
-1.0370191 -7.0708089 3.9769015 19.555555
-0.74374741 -7.0934067 3.9780152 15.333333
-0.44776377 -7.0109148 3.9825161 20.555555
-0.14609858 -6.983716 4.0004969 12.3
0.15667079 -7.0798593 3.9856262 8.5
0.48282459 -7.0640569 4.0243983 8.363636
0.75137711 -7.006042 4.0254836 13
1.0615721 -7.0232906 4.0268569 15.666667
1.3762655 -7.0349197 4.0415969 14
1.6700765 -7.0063062 4.0526681 14.285714
1.9470561 -7.0442863 4.0530858 21.142857
2.2394836 -7.0692153 4.0780745 18.875
2.6166999 -7.0521941 4.0883341 17
2.760988 -7.0444465 4.0917687 21.714285
3.1482654 -7.0345955 4.100853 18
3.3796253 -7.0319328 4.1070256 17.666666
3.810595 -7.1115561 4.1025047 11.5
4.0877948 -6.9767709 4.1135287 23.333334
4.4000926 -6.9328289 4.140276 20.5
4.6417503 -6.966681 4.129313 3
4.9228163 -7.0356364 4.1398416 12.5
5.2107668 -7.0348372 4.1639462 19.75
5.8129425 -6.9831262 4.1543918 3
6.0660315 -7.1037807 4.1702175 21
6.4421668 -7.0474777 4.1739998 22.666666
6.7682118 -6.9788051 4.1935105 20
7.1244264 -7.0190635 4.1888986 34
7.3266277 -7.0020299 4.1893773 26
8.5949926 -7.0289822 4.1977844 26.5
-24.773146 -6.8870997 4.0060678 10
-14.483482 -6.6325479 4.0519786 13.333333
-14.367053 -6.7857137 3.9400187 18.666666
-4.7961936 -6.8911939 3.9020791 3
-4.3222871 -6.815239 3.9227481 2
-3.4139957 -6.7094288 3.9038301 1.75
-3.0962169 -6.7724485 3.9098454 3.1428571
-2.8688014 -6.7512321 3.9155395 3.7142856
-2.5359786 -6.7991695 3.9251752 8
-2.2704132 -6.6789041 3.9296062 8.833333
-1.9387169 -6.7602139 3.9305544 14.75
-1.6552124 -6.7489867 3.9379325 13.875
-1.3686161 -6.7610703 3.9478188 12
-1.0608793 -6.7136865 3.9654801 15.285714
-0.77385503 -6.7733126 3.9767489 10.111111
-0.43860504 -6.6434975 3.978718 18.25
-0.14177215 -6.8341603 3.9837124 14
0.14654158 -6.7534904 3.964978 14
0.48587766 -6.765759 4.0067286 8.875
0.7827974 -6.7211275 4.020041 15.125
1.0456229 -6.7427926 4.0300674 9.2222223
1.3114343 -6.7207074 4.0344014 18
1.631056 -6.7363381 4.0394163 7.5
1.8729762 -6.6923313 4.0560374 10.666667
2.2429302 -6.8445663 4.0551615 22.799999
2.542136 -6.7120509 4.0556054 16.75
2.8777211 -6.7598071 4.0618162 18.666666
3.221343 -6.7805552 4.103168 12.625
3.4213867 -6.8024483 4.0982852 17.166666
3.783793 -6.7526836 4.1126862 15.5
4.0342646 -6.8342409 4.0869017 17
4.40768 -6.8137531 4.0709281 4
4.6291056 -6.8065414 4.1286187 17.200001
4.8689504 -6.8896117 4.1424074 31
5.2765727 -6.718369 4.1271472 21
5.6583328 -6.7916861 4.1820302 14
5.8309536 -6.6433649 4.1436834 28.5
6.2922759 -6.7991176 4.1561856 27
6.357852 -6.7366714 4.1572499 28.5
6.6508756 -6.8138843 4.1815057 15
6.9684854 -6.659111 4.1940761 19
7.2302718 -6.6830788 4.1919637 23
7.5061274 -6.6014013 4.1569734 33
7.9452329 -6.7470937 4.1637836 21.333334
8.2287664 -6.8819852 4.1910958 26
8.4621382 -6.6763449 4.1775703 30
15.979531 -6.7108359 4.0082369 6.5
-14.771121 -6.3781939 3.9502342 5
-14.545491 -6.5636806 3.9847159 30
-6.5385275 -6.5561328 4.1541629 2
-3.4281459 -6.5464416 3.9009354 2
-3.1359529 -6.4742823 3.9066963 2.4000001
-2.9385951 -6.4565158 3.9018714 3
-2.5934889 -6.4290328 3.9154422 6.5
-2.2477493 -6.4596744 3.9195724 12.363636
-1.9270002 -6.4458184 3.9257023 13
-1.6577549 -6.4518638 3.9377618 12.2
-1.3428816 -6.4038062 3.9408402 18.5
-0.99301761 -6.4612708 3.9496536 17
-0.68385476 -6.4631491 3.9602323 14.75
-0.4362115 -6.4518571 3.974437 19.714285
-0.13457048 -6.4541059 3.9742527 17.3125
0.11788709 -6.392518 3.9713287 16.6
0.40579909 -6.3957376 3.985213 17
0.76009345 -6.4548616 3.9923706 16.818182
1.0587577 -6.4508772 4.020195 11.888889
1.3323925 -6.4472966 4.0078125 20.25
1.6560953 -6.408906 4.0198488 14.875
2.01671 -6.432941 4.0343704 19.666666
2.2360146 -6.445219 4.030149 19.666666
2.5403697 -6.3704033 4.0528183 15.333333
2.8367004 -6.4467669 4.0572214 16.5
3.17799 -6.4271193 4.0633297 17
3.3666842 -6.4028344 4.0737844 12
3.6961126 -6.494894 4.0917253 20.875
4.0280185 -6.4826665 4.0943203 21.75
4.3939734 -6.4658179 4.0836968 16.6
4.7381606 -6.5396934 4.1353483 21.5
4.9176998 -6.469965 4.1186829 22.666666
5.2067065 -6.4078565 4.1285443 24.5
5.4698172 -6.4774675 4.1179767 18.5
6.1436806 -6.4580116 4.1698012 21
6.8036261 -6.5893602 4.1793809 16
7.046247 -6.4027295 4.1858726 26.333334
7.2936425 -6.473774 4.1704211 15.333333
7.6521111 -6.4810934 4.1776032 29.75
8.2845545 -6.3154049 4.1934638 24
8.4641008 -6.4264908 4.1318927 13
9.2686176 -6.3547764 4.1885524 18
-24.341908 -6.2348061 3.9515505 21
-24.008492 -6.0014825 4.1314073 12
-2.7719769 -6.1634703 3.9216673 3.5
-2.6356776 -6.1311207 3.9154413 0.5
-2.2685025 -6.1242132 3.9057324 13
-1.8723683 -6.1956601 3.9212711 14.666667
-1.581774 -6.1021805 3.9138141 12.25
-1.3580788 -6.1634731 3.927788 15.727273
-1.0359349 -6.1929555 3.9382582 11.25
-0.72994965 -6.1352692 3.9504662 12.333333
-0.4221988 -6.1214509 3.9495504 15.083333
-0.13413617 -6.1489854 3.9786239 11.25
0.17117222 -6.149581 3.9661057 13.714286
0.4579899 -6.1188121 3.9769306 15.666667
0.74666679 -6.162179 3.9911318 14.888889
1.060769 -6.1272349 3.9974518 15.222222
1.2992784 -6.1863203 4.0165815 12.75
1.623758 -6.1558723 4.0198326 16.666666
1.9703828 -6.1252136 4.0189714 16.333334
2.2828691 -6.1182947 4.0185308 17.799999
2.4694684 -6.1139092 4.0271544 23.333334
2.8400409 -6.1550741 4.0484128 12.5
3.172776 -6.1646132 4.0666432 12.666667
3.4394703 -6.1684046 4.0557284 21.6
3.7671614 -6.1378274 4.0772223 21.5
4.0480204 -6.1845922 4.1023717 21.799999
